X,Y,Z,R,G,B
-85.3016208557129,29.80269354736328,5.52899980545044,192,189,174
-85.30161322631837,29.80268782531738,6.35799980163574,199,194,179
-85.30160559692384,29.80258482849121,7.38800001144409,149,151,139
-85.3015979675293,29.802577199096678,7.8270001411438,149,151,139
-85.30159033813477,29.802575291748045,7.7480001449585,191,189,176
-85.3015979675293,29.802577199096678,6.32800006866455,191,189,176
-85.3015979675293,29.802569569702147,7.59899997711182,151,156,136
-85.30159033813477,29.802567662353514,7.47700023651123,195,192,177
-85.3015979675293,29.802561940307616,9.16800022125244,193,191,175
-85.3015979675293,29.802560032958983,7.14799976348877,193,191,175
-85.30156744995118,29.802342595214842,7.58599996566772,54,58,74
-85.30155982055665,29.80234068786621,6.70900011062622,124,124,115
-85.30156744995118,29.802338780517577,7.70800018310547,77,75,89
-85.30155982055665,29.802336873168944,7.69600009918213,124,124,115
-85.30155219116212,29.80233496582031,6.33699989318848,124,124,115
-85.30156744995118,29.802325429077147,7.42799997329712,70,73,84
-85.30155982055665,29.802323521728514,6.89799976348877,114,110,110
-85.30155982055665,29.80231970703125,8.29699993133545,114,110,110
-85.30155982055665,29.802317799682616,6.60799980163574,114,110,110
-85.30156744995118,29.80230635559082,8.05900001525879,61,76,75
-85.30155982055665,29.802298726196288,8.34799957275391,114,104,108
-85.30153693237305,29.802195729370116,8.7480001449585,131,130,107
-85.30154456176759,29.802188099975584,8.55900001525879,146,144,129
-85.30153693237305,29.80218619262695,8.48900032043457,148,148,129
-85.30154456176759,29.802182377929686,8.57699966430664,132,125,109
-85.30154456176759,29.80217093383789,11.48799991607666,169,158,144
-85.30154456176759,29.802161397094725,11.29599952697754,56,57,87
-85.30154456176759,29.80216521179199,11.52799987792969,140,131,122
-85.30154456176759,29.802172841186522,11.66800022125244,169,158,144
-85.30155982055665,29.80231398498535,8.88799953460693,61,76,75
-85.30155982055665,29.802315892333983,7.79699993133545,114,110,110
-85.30156744995118,29.80232733642578,8.67800045013428,70,73,84
-85.30155982055665,29.80232733642578,7.71799993515015,110,103,110
-85.30155982055665,29.80233496582031,7.97700023651123,124,124,115
-85.30156744995118,29.80234068786621,6.75699996948242,77,75,89
-85.30155982055665,29.80234068786621,7.93699979782104,124,124,115
-85.3015979675293,29.802569569702147,8.58899974822998,151,156,136
-85.3015979675293,29.802569569702147,7.78800010681152,195,192,177
-85.3015979675293,29.802573384399413,7.81799983978271,195,192,177
-85.30160559692384,29.802581013793944,7.84899997711182,149,151,139
-85.30161322631837,29.802691640014647,7.37900018692017,199,194,179
-85.3016208557129,29.802699269409178,6.08699989318848,192,189,174
-85.30161322631837,29.80270117675781,6.52899980545044,199,194,181
-85.30161322631837,29.802699269409178,8.95800018310547,199,194,181
-85.3016208557129,29.80270689880371,9.64700031280518,187,184,167
-85.30161322631837,29.802708806152342,8.57699966430664,195,194,178
-85.3016208557129,29.80271452819824,6.30900001525879,184,180,158
-85.3016208557129,29.80271452819824,8.02799987792969,184,180,158
-85.30161322631837,29.802716435546873,8.25699996948242,191,188,170
-85.3016208557129,29.80272025024414,6.42799997329712,179,178,154
-85.3016208557129,29.80272025024414,8.03800010681152,179,178,154
-85.30161322631837,29.802722157592772,8.29699993133545,190,186,169
-85.30162848510743,29.80276793395996,6.25799989700317,50,63,98
-85.30162848510743,29.802773656005858,6.09899997711182,55,71,92
-85.30153693237305,29.802195729370116,8.89700031280518,135,130,114
-85.30155982055665,29.802302540893553,8.97599983215332,114,104,108
-85.30155982055665,29.802310170288084,9.10700035095215,109,117,107
-85.30155982055665,29.802312077636717,7.80900001525879,109,117,107
-85.30155982055665,29.80232161437988,8.64700031280518,114,110,110
-85.30155219116212,29.80231970703125,7.43699979782104,167,163,146
-85.30155219116212,29.802325429077147,7.96700000762939,165,161,147
-85.30156744995118,29.802329243774413,8.63799953460693,70,73,84
-85.30155219116212,29.80233496582031,7.73899984359741,173,169,149
-85.30155982055665,29.802336873168944,8.02799987792969,124,124,115
-85.30156744995118,29.802336873168944,7.27899980545044,77,75,89
-85.30159033813477,29.802567662353514,8.1560001373291,195,192,177
-85.3015979675293,29.802569569702147,8.26900005340576,151,156,136
-85.30159033813477,29.802573384399413,7.85799980163574,195,192,177
-85.3015979675293,29.80258482849121,8.02799987792969,183,175,160
-85.30159033813477,29.80258482849121,7.10799980163574,183,175,160
-85.3015979675293,29.802586735839842,6.94600009918213,161,153,143
-85.3015979675293,29.802590550537108,6.96799993515015,161,153,143
-85.30161322631837,29.802691640014647,7.61700010299683,199,194,179
-85.3016208557129,29.80269354736328,7.13800001144409,192,189,174
-85.3016208557129,29.802703084106444,9.84799957275391,187,184,167
-85.30161322631837,29.80270117675781,8.87899971008301,195,194,178
-85.30160559692384,29.80270689880371,8.85799980163574,205,202,192
-85.3016208557129,29.802708806152342,9.78699970245361,187,184,167
-85.30161322631837,29.802708806152342,8.65900039672852,195,194,178
-85.30160559692384,29.80270689880371,7.45800018310547,205,202,192
-85.30160559692384,29.80271452819824,8.31799983978271,191,188,170
-85.3016208557129,29.802718342895506,9.65900039672852,184,180,158
-85.30161322631837,29.802716435546873,8.1870002746582,191,188,170
-85.3016208557129,29.802718342895506,7.88800001144409,184,180,158
-85.3016208557129,29.802716435546873,6.61700010299683,184,180,158
-85.30160559692384,29.802718342895506,8.40900039672852,202,200,188
-85.3016208557129,29.802722157592772,9.84799957275391,179,178,154
-85.30161322631837,29.80272025024414,8.25699996948242,190,186,169
-85.3016208557129,29.802722157592772,8.05900001525879,179,178,154
-85.30167426147462,29.803055943603514,8.59799957275391,219,219,214
-85.30167426147462,29.803048314208983,7.05000019073486,219,218,214
-85.30167426147462,29.803048314208983,9.59799957275391,219,218,214
-85.30167426147462,29.803048314208983,8.19900035858154,219,218,214
-85.30168189086915,29.80304640686035,6.90999984741211,219,218,214
-85.30168189086915,29.803048314208983,10.10700035095215,219,218,214
-85.30166663208009,29.80304068481445,7.03800010681152,218,218,213
-85.30167426147462,29.80304068481445,7.87900018692017,219,219,214
-85.30167426147462,29.80303877746582,7.03800010681152,219,219,214
-85.30167426147462,29.80304068481445,9.59799957275391,219,219,214
-85.30168189086915,29.80303877746582,7.94000005722046,218,218,214
-85.30166663208009,29.803036870117186,7.98000001907349,218,218,213
-85.30167426147462,29.803034962768553,6.98899984359741,219,219,214
-85.30167426147462,29.803034962768553,8.02799987792969,219,219,214
-85.30168189086915,29.803034962768553,9.77799987792969,219,219,214
-85.30167426147462,29.803031148071288,7.50699996948242,218,219,214
-85.30167426147462,29.803029240722655,8.12899971008301,218,219,214
-85.30167426147462,29.803023518676756,7.73000001907349,218,218,214
-85.30167426147462,29.803023518676756,8.77799987792969,218,218,214
-85.30167426147462,29.80300635253906,6.00799989700317,218,217,213
-85.30166663208009,29.80299872314453,6.43699979782104,218,217,213
-85.30167426147462,29.802996815795897,6.47700023651123,216,216,212
-85.30165900268555,29.80299300109863,6.61700010299683,217,217,212
-85.30166663208009,29.80299300109863,7.35799980163574,217,217,212
-85.30166663208009,29.80299109375,6.68699979782104,217,217,212
-85.30166663208009,29.8029853717041,6.21799993515015,216,216,212
-85.30166663208009,29.8029853717041,7.30000019073486,216,216,212
-85.30165900268555,29.802981557006834,6.34000015258789,217,216,212
-85.30166663208009,29.802981557006834,6.51999998092651,216,216,212
-85.30168189086915,29.803055943603514,8.57699966430664,219,219,215
-85.30167426147462,29.80305403625488,7.8270001411438,219,219,214
-85.30168189086915,29.80304640686035,10.28999996185303,219,218,214
-85.30167426147462,29.803044499511717,9.57999992370605,219,218,214
-85.30167426147462,29.803044499511717,7.75699996948242,219,218,214
-85.30166663208009,29.803042592163084,7.12900018692017,218,218,214
-85.30167426147462,29.80304068481445,9.61999988555908,219,219,214
-85.30167426147462,29.80303877746582,8.03800010681152,219,219,214
-85.30167426147462,29.80303877746582,7.11700010299683,219,219,214
-85.30166663208009,29.80303877746582,6.93699979782104,218,218,213
-85.30167426147462,29.803031148071288,8.15999984741211,218,219,214
-85.30167426147462,29.803029240722655,7.46799993515015,218,219,214
-85.30168189086915,29.80302542602539,8.80000019073486,218,219,214
-85.30167426147462,29.803023518676756,7.71799993515015,218,218,214
-85.30167426147462,29.803008259887694,5.92799997329712,218,218,214
-85.30167426147462,29.803000630493163,6.35799980163574,218,217,213
-85.30165900268555,29.802996815795897,6.55900001525879,218,217,213
-85.30166663208009,29.80299109375,7.30900001525879,217,217,212
-85.30166663208009,29.802981557006834,6.51999998092651,216,216,212
-85.30165900268555,29.8029796496582,6.42799997329712,217,216,212
-85.30166663208009,29.802989186401366,7.43699979782104,217,217,212
-85.30167426147462,29.80301970397949,7.8270001411438,218,218,214
-85.30167426147462,29.803027333374022,8.65900039672852,218,219,214
-85.30167426147462,29.803036870117186,8.19900035858154,219,219,214
-85.30167426147462,29.803036870117186,9.97900009155273,219,219,214
-85.30168189086915,29.803044499511717,10.27799987792969,219,218,214
-85.30167426147462,29.803050221557616,10.05799961090088,219,218,214
-85.30165900268555,29.8029853717041,6.61700010299683,217,216,212
-85.30166663208009,29.80299109375,7.5770001411438,217,217,212
-85.30166663208009,29.80299872314453,7.80900001525879,218,217,213
-85.30167426147462,29.803000630493163,6.64799976348877,218,217,214
-85.30166663208009,29.80300635253906,6.65999984741211,218,217,213
-85.30167426147462,29.80300635253906,6.06899976730347,218,218,214
-85.30167426147462,29.803021611328123,7.83900022506714,218,218,214
-85.30167426147462,29.803031148071288,9.11999988555908,218,219,214
-85.30167426147462,29.803029240722655,7.81799983978271,218,218,213
-85.30167426147462,29.803044499511717,9.86900043487549,219,218,214
-85.30167426147462,29.803044499511717,7.66900014877319,218,218,214
-85.30168189086915,29.80305403625488,10.23799991607666,219,219,215
-85.30167426147462,29.80305212890625,8.82999992370605,219,219,214
-85.30153693237305,29.80329817687988,5.07800006866455,135,132,122
-85.30154456176759,29.80329817687988,5.82800006866455,157,156,140
-85.30153693237305,29.803292454833983,5.16900014877319,198,194,184
-85.30153693237305,29.803292454833983,5.84000015258789,146,150,137
-85.30154456176759,29.80329054748535,6.07800006866455,157,162,141
-85.30155982055665,29.803288640136717,5.90999984741211,178,182,168
-85.30152930297852,29.803288640136717,5.52899980545044,198,194,184
-85.30153693237305,29.803286732788084,4.74900007247925,198,194,184
-85.30153693237305,29.803286732788084,5.9980001449585,146,150,137
-85.30154456176759,29.80328482543945,6.09000015258789,157,162,141
-85.30153693237305,29.803279103393553,5.35799980163574,170,173,157
-85.30154456176759,29.803279103393553,5.98000001907349,170,173,157
-85.30155219116212,29.80327719604492,5.80000019073486,165,172,147
-85.30154456176759,29.80329817687988,5.66900014877319,135,132,122
-85.30153693237305,29.80329817687988,4.75799989700317,135,132,122
-85.30154456176759,29.80329054748535,6.15999984741211,157,162,141
-85.30153693237305,29.803288640136717,6.07800006866455,146,150,137
-85.30153693237305,29.803286732788084,5.21799993515015,198,194,184
-85.30155982055665,29.803286732788084,5.88000011444092,178,182,168
-85.30154456176759,29.80328482543945,6.14799976348877,165,172,147
-85.30153693237305,29.80328291809082,5.81899976730347,170,173,157
-85.30153693237305,29.803281010742186,4.98999977111816,193,188,175
-85.30155219116212,29.80327719604492,5.82800006866455,165,172,147
-85.30154456176759,29.803275288696288,5.27899980545044,179,180,158
-85.30153693237305,29.803273381347655,5.23999977111816,181,179,163
-85.30155219116212,29.803281010742186,5.66900014877319,165,172,147
-85.30154456176759,29.80328291809082,6.13899993896484,170,173,157
-85.30153693237305,29.80328482543945,6.00799989700317,193,188,175
-85.30155219116212,29.803288640136717,5.55999994277954,178,182,168
-85.30154456176759,29.80329054748535,5.88000011444092,157,162,141
-85.30153693237305,29.803292454833983,6.13899993896484,146,150,137
-85.30154456176759,29.80329626953125,5.57800006866455,157,156,140
-85.30154456176759,29.803273381347655,5.63899993896484,179,180,158
-85.30154456176759,29.803279103393553,6.13899993896484,170,173,157
-85.30155219116212,29.803281010742186,5.82800006866455,165,172,147
-85.30153693237305,29.803288640136717,6.38899993896484,146,150,137
-85.30154456176759,29.80329054748535,5.90999984741211,146,150,137
-85.30153693237305,29.80329626953125,5.71799993515015,135,132,122
-85.30157507934571,29.803721608276366,17.34000015258789,146,149,132
-85.30159033813477,29.803719700927733,13.57900047302246,148,150,135
-85.3015979675293,29.8037177935791,13.58800029754639,133,150,125
-85.30160559692384,29.803713978881834,10.97000026702881,135,158,117
-85.30160559692384,29.803715886230467,12.83800029754639,133,157,121
-85.30152930297852,29.803723515625,10.73799991607666,135,140,122
-85.30152930297852,29.803723515625,12.39000034332275,135,140,122
-85.30154456176759,29.803719700927733,8.80000019073486,106,126,113
-85.30153693237305,29.803721608276366,12.58800029754639,106,126,113
-85.30153693237305,29.803723515625,15.98099994659424,106,126,113
-85.30153693237305,29.803723515625,14.89900016784668,106,126,113
-85.30153693237305,29.803723515625,18.23900032043457,106,126,113
-85.30154456176759,29.803723515625,18.45000076293945,82,107,100
-85.30155219116212,29.803721608276366,17.33099937438965,82,107,100
-85.30155219116212,29.803721608276366,18.51099967956543,82,107,100
-85.30155982055665,29.803719700927733,15.91100025177002,89,112,111
-85.30155982055665,29.803719700927733,18.40099906921387,89,112,111
-85.30156744995118,29.8037177935791,18.38899993896484,102,110,103
-85.30157507934571,29.8037177935791,17.54999923706055,146,149,132
-85.30158270874024,29.803715886230467,16.70000076293945,145,162,131
-85.30160559692384,29.80371016418457,13.07900047302246,135,158,117
-85.30160559692384,29.803708256835936,11.0310001373291,133,157,121
-85.30152167358399,29.803715886230467,11.10099983215332,167,167,150
-85.30152167358399,29.803715886230467,12.43900012969971,167,167,150
-85.30152930297852,29.803713978881834,10.61900043487549,148,156,122
-85.30152167358399,29.8037177935791,17.42799949645996,165,168,150
-85.30152167358399,29.8037177935791,17.8799991607666,161,170,149
-85.30152930297852,29.803715886230467,18.10799980163574,148,156,122
-85.30154456176759,29.8037120715332,13.47799968719482,105,114,101
-85.30155219116212,29.80371016418457,11.78999996185303,105,114,101
-85.30153693237305,29.803715886230467,18.48900032043457,126,136,115
-85.30155982055665,29.80371016418457,12.83800029754639,134,143,129
-85.30154456176759,29.803713978881834,18.52899932861328,105,114,101
-85.30155219116212,29.8037120715332,18.45000076293945,134,143,129
-85.30156744995118,29.80371016418457,18.10799980163574,136,145,126
-85.30157507934571,29.803706349487303,14.60900020599365,156,165,133
-85.30157507934571,29.803708256835936,18.35799980163574,136,145,126
-85.30157507934571,29.803708256835936,17.34000015258789,141,157,132
-85.30158270874024,29.803706349487303,17.70000076293945,171,177,158
-85.30159033813477,29.80370444213867,15.36800003051758,171,177,158
-85.3015979675293,29.803702534790038,12.81099987030029,170,175,153
-85.3015979675293,29.803702534790038,15.50800037384033,170,175,153
-85.30160559692384,29.803700627441405,12.74100017547607,157,168,137
-85.30160559692384,29.803702534790038,15.48099994659424,157,168,137
-85.30152167358399,29.803713978881834,17.59000015258789,167,167,150
-85.30152930297852,29.8037120715332,17.79999923706055,148,156,122
-85.30153693237305,29.80371016418457,18.67799949645996,148,156,122
-85.30154456176759,29.80371016418457,18.60799980163574,126,136,115
-85.30155219116212,29.803708256835936,18.42799949645996,105,114,101
-85.30156744995118,29.80370444213867,13.73999977111816,159,164,148
-85.30155982055665,29.803706349487303,18.29999923706055,151,158,136
-85.30156744995118,29.803702534790038,14.64900016784668,159,164,148
-85.30156744995118,29.80370444213867,18.10799980163574,159,164,148
-85.30157507934571,29.803702534790038,17.63899993896484,156,165,133
-85.30158270874024,29.803700627441405,14.85900020599365,171,177,158
-85.30159033813477,29.803698720092772,15.42000007629395,170,175,153
-85.3015979675293,29.80369681274414,12.82900047302246,164,172,141
-85.3015979675293,29.80369681274414,15.56900024414063,180,179,158
-85.30160559692384,29.803694905395506,12.25899982452393,162,176,140
-85.30160559692384,29.80369681274414,15.52999973297119,164,172,141
-85.30152930297852,29.803700627441405,14.34099960327148,160,170,142
-85.30152167358399,29.803702534790038,18.44000053405762,155,153,131
-85.30153693237305,29.803700627441405,18.40099906921387,160,170,142
-85.30153693237305,29.803698720092772,16.81900024414063,156,163,133
-85.30154456176759,29.80369681274414,14.57900047302246,165,165,134
-85.30154456176759,29.803698720092772,18.27000045776367,156,163,133
-85.30155219116212,29.80369681274414,18.20000076293945,165,165,134
-85.30155982055665,29.803694905395506,17.83099937438965,162,167,142
-85.30156744995118,29.803692998046873,17.27899932861328,173,176,159
-85.30158270874024,29.80369109069824,13.40799999237061,186,187,167
-85.30158270874024,29.80369109069824,15.9689998626709,169,171,143
-85.30159033813477,29.803689183349608,13.40799999237061,189,190,169
-85.3015979675293,29.803685368652342,9.71100044250488,156,162,142
-85.30159033813477,29.80369109069824,16.64800071716309,186,187,167
-85.30159033813477,29.803689183349608,15.82800006866455,186,187,167
-85.30161322631837,29.80368346130371,8.82100009918213,168,174,144
-85.3015979675293,29.803687276000975,15.56900024414063,162,166,153
-85.30160559692384,29.803685368652342,13.17000007629395,156,162,142
-85.30161322631837,29.80368346130371,10.64099979400635,168,174,144
-85.30161322631837,29.80368346130371,12.72799968719482,168,174,144
-85.30162848510743,29.803681553955077,10.97000026702881,161,170,144
-85.30152167358399,29.803692998046873,14.60000038146973,155,155,135
-85.30152167358399,29.803692998046873,17.65999984741211,155,155,135
-85.30152930297852,29.803692998046873,16.55999946594238,155,155,135
-85.30153693237305,29.80369109069824,13.89900016784668,170,171,152
-85.30152930297852,29.803692998046873,18.41900062561035,170,171,152
-85.30153693237305,29.80369109069824,17.98900032043457,173,173,150
-85.30155219116212,29.803685368652342,12.67099952697754,174,173,150
-85.30154456176759,29.803689183349608,17.9680004119873,165,165,134
-85.30154456176759,29.803689183349608,17.33099937438965,145,155,121
-85.30155219116212,29.803687276000975,18.04999923706055,145,155,121
-85.30155982055665,29.803687276000975,17.02899932861328,174,173,150
-85.30156744995118,29.803685368652342,17.17900085449219,178,178,162
-85.30157507934571,29.80368346130371,17.2180004119873,183,185,161
-85.30158270874024,29.803681553955077,16.32799911499023,189,190,169
-85.3015979675293,29.80367773925781,10.7810001373291,130,145,117
-85.3015979675293,29.80367773925781,13.9689998626709,130,145,117
-85.30160559692384,29.80367773925781,12.68900012969971,130,145,117
-85.30160559692384,29.803675831909178,10.98799991607666,125,142,119
-85.30161322631837,29.803673924560545,9.6899995803833,125,142,119
-85.30160559692384,29.80367773925781,14.10900020599365,130,145,117
-85.30162848510743,29.803672017211913,10.37800025939941,120,146,119
-85.30163611450196,29.80367010986328,10.18900012969971,94,125,99
-85.30151404418946,29.803689183349608,17.8700008392334,155,158,144
-85.30152167358399,29.803689183349608,17.05999946594238,166,166,147
-85.30152167358399,29.803687276000975,15.39900016784668,166,166,147
-85.30152930297852,29.803685368652342,14.35900020599365,175,170,149
-85.30152167358399,29.803687276000975,18.05900001525879,166,166,147
-85.30153693237305,29.803685368652342,14.72799968719482,175,170,149
-85.30152930297852,29.803687276000975,18.22999954223633,175,170,149
-85.30154456176759,29.803685368652342,17.6299991607666,156,161,133
-85.30155219116212,29.80368346130371,17.20899963378906,145,155,121
-85.30155982055665,29.803681553955077,16.82799911499023,174,173,150
-85.30156744995118,29.803679646606444,16.80999946594238,163,173,145
-85.30157507934571,29.80367773925781,16.80999946594238,192,190,169
-85.30158270874024,29.803675831909178,16.48999977111816,181,183,165
-85.30159033813477,29.803673924560545,13.72799968719482,159,165,146
-85.3015979675293,29.803672017211913,13.95100021362305,130,145,117
-85.3016208557129,29.803668202514647,11.08899974822998,128,155,115
-85.30162848510743,29.803666295166014,11.35099983215332,128,155,115
-85.30162848510743,29.803666295166014,9.93000030517578,133,144,113
-85.30163611450196,29.803666295166014,11.68900012969971,133,144,113
-85.30151404418946,29.803679646606444,15.17000007629395,172,175,150
-85.30152167358399,29.80367773925781,15.27099990844727,142,154,136
-85.30152930297852,29.80367773925781,14.60900020599365,165,168,143
-85.30152930297852,29.80367773925781,13.45100021362305,165,168,143
-85.30153693237305,29.803675831909178,14.6879997253418,165,168,143
-85.30153693237305,29.80367773925781,16.97999954223633,150,155,132
-85.30155219116212,29.803673924560545,12.54899978637695,130,145,115
-85.30154456176759,29.803675831909178,16.67000007629395,150,155,132
-85.30155219116212,29.803673924560545,16.88899993896484,130,145,115
-85.30155982055665,29.803672017211913,16.38899993896484,146,163,133
-85.30156744995118,29.80367010986328,14.96000003814697,164,174,142
-85.30156744995118,29.80367010986328,16.32799911499023,164,174,142
-85.30157507934571,29.80367010986328,16.48999977111816,190,192,172
-85.30159033813477,29.803666295166014,13.72799968719482,175,175,155
-85.3015979675293,29.80366438781738,13.72799968719482,150,158,134
-85.30160559692384,29.80366248046875,9.93000030517578,114,135,102
-85.30160559692384,29.80366438781738,13.72799968719482,130,135,113
-85.30160559692384,29.80366248046875,11.86900043487549,126,141,104
-85.30161322631837,29.803660573120116,10.61900043487549,126,141,104
-85.3016208557129,29.803660573120116,11.76799964904785,157,166,127
-85.3016208557129,29.803658665771483,10.64999961853027,157,166,127
-85.30162848510743,29.803658665771483,10.85099983215332,146,153,122
-85.30152167358399,29.80367010986328,10.64099979400635,154,158,140
-85.30152930297852,29.80367010986328,10.97000026702881,156,164,137
-85.30152167358399,29.803672017211913,15.10000038146973,142,154,136
-85.30152930297852,29.80367010986328,14.81900024414063,156,164,137
-85.30154456176759,29.803666295166014,11.21100044250488,146,152,128
-85.30154456176759,29.803666295166014,10.03999996185303,139,147,119
-85.30153693237305,29.803668202514647,14.92000007629395,146,152,128
-85.30155982055665,29.80366248046875,8.26000022888184,144,163,130
-85.30154456176759,29.803668202514647,16.60899925231934,146,152,128
-85.30154456176759,29.803666295166014,14.9689998626709,139,147,119
-85.30155219116212,29.803666295166014,16.67000007629395,139,147,119
-85.30155982055665,29.803666295166014,16.67900085449219,144,163,130
-85.30155982055665,29.80366438781738,15.21000003814697,144,163,130
-85.30157507934571,29.803660573120116,11.43900012969971,187,187,173
-85.30156744995118,29.80366248046875,15.60900020599365,164,174,142
-85.30158270874024,29.803658665771483,11.44799995422363,155,151,147
-85.30159033813477,29.803658665771483,12.75899982452393,155,151,147
-85.3015979675293,29.80365675842285,9.91800022125244,113,115,116
-85.30159033813477,29.803658665771483,13.2189998626709,113,115,116
-85.30160559692384,29.803654851074217,9.27799987792969,114,135,102
-85.30160559692384,29.803654851074217,10.97000026702881,126,141,104
-85.30161322631837,29.803652943725584,10.10999965667725,126,141,104
-85.3016208557129,29.803652943725584,10.89099979400635,159,170,140
-85.3016208557129,29.80365103637695,9.6899995803833,159,170,140
-85.3016208557129,29.80365103637695,11.39999961853027,159,170,140
-85.30162848510743,29.80365103637695,10.72900009155273,153,163,141
-85.30152167358399,29.803660573120116,10.75,170,164,153
-85.30152167358399,29.80366248046875,14.91100025177002,154,158,140
-85.30152167358399,29.80366248046875,14.07900047302246,170,164,153
-85.30152930297852,29.803658665771483,10.56999969482422,153,164,140
-85.30152930297852,29.803660573120116,15.17899990081787,170,164,153
-85.30153693237305,29.80365675842285,10.78999996185303,162,169,143
-85.30154456176759,29.80365675842285,9.82100009918213,162,169,143
-85.30155219116212,29.803654851074217,9.73799991607666,157,165,137
-85.30154456176759,29.80365675842285,14.00899982452393,162,169,143
-85.30155219116212,29.80365675842285,14.0600004196167,157,165,137
-85.30155982055665,29.803654851074217,13.58800029754639,165,170,143
-85.30157507934571,29.80365103637695,11.28999996185303,178,182,169
-85.3015979675293,29.803645314331053,9.16800022125244,91,107,103
-85.30160559692384,29.803645314331053,10.02799987792969,91,107,103
-85.30151404418946,29.803654851074217,14.06999969482422,196,194,178
-85.30152167358399,29.803652943725584,11.85999965667725,170,164,153
-85.30152167358399,29.803654851074217,14.38000011444092,170,164,153
-85.30152930297852,29.803652943725584,12.4689998626709,173,173,148
-85.30154456176759,29.80364912902832,10.16800022125244,171,171,145
-85.30154456176759,29.80364912902832,12.77999973297119,171,171,145
-85.30155219116212,29.803647221679686,10.35999965667725,171,171,145
-85.30155219116212,29.80364912902832,13.75899982452393,171,171,145
-85.30155219116212,29.803647221679686,12.35099983215332,176,176,154
-85.30155982055665,29.803647221679686,13.43900012969971,176,176,154
-85.30157507934571,29.80364340698242,9.52799987792969,182,182,164
-85.30152167358399,29.80364912902832,10.21100044250488,174,168,156
-85.30152167358399,29.80364912902832,13.75899982452393,174,168,156
-85.30152930297852,29.80364912902832,12.26799964904785,174,168,156
-85.30153693237305,29.803645314331053,10.69900035858154,164,170,145
-85.30154456176759,29.803645314331053,9.66800022125244,164,170,145
-85.30155219116212,29.80364340698242,10.03999996185303,176,172,149
-85.30155219116212,29.80364340698242,12.31999969482422,176,172,149
-85.30155982055665,29.803641499633788,10.22900009155273,181,178,157
-85.30156744995118,29.803641499633788,10.18000030517578,182,182,164
-85.30157507934571,29.803637684936522,9.50100040435791,193,191,175
-85.30161322631837,29.803631962890623,7.82999992370605,142,143,129
-85.30154456176759,29.803631962890623,9.26000022888184,180,175,155
-85.30155219116212,29.80363005554199,9.78999996185303,180,175,155
-85.30155982055665,29.80363005554199,9.82999992370605,180,175,154
-85.30159033813477,29.80362242614746,5.9980001449585,185,182,170
-85.30159033813477,29.80362242614746,7.37900018692017,168,166,151
-85.30159033813477,29.80362242614746,6.51100015640259,168,166,151
-85.3015979675293,29.80362242614746,8.81799983978271,168,166,151
-85.3015979675293,29.803620518798827,7.76900005340576,168,166,151
-85.30160559692384,29.803620518798827,7.61999988555908,152,154,136
-85.30161322631837,29.803618611450194,6.05900001525879,143,147,132
-85.30161322631837,29.803618611450194,8.57999992370605,143,147,132
-85.3016208557129,29.803618611450194,8.65900039672852,126,139,129
-85.30162848510743,29.803614796752928,7.40100002288818,120,137,125
-85.30153693237305,29.80363005554199,17.29999923706055,174,171,152
-85.30154456176759,29.803628148193358,16.95899963378906,180,175,155
-85.30159033813477,29.803618611450194,6.87900018692017,185,182,170
-85.30159033813477,29.80361670410156,6.34899997711182,185,182,170
-85.30159033813477,29.803618611450194,8.55900001525879,168,166,151
-85.3015979675293,29.80361670410156,8.26000022888184,156,157,138
-85.30160559692384,29.803614796752928,7.15100002288818,156,157,138
-85.30160559692384,29.803614796752928,8.51000022888184,156,157,138
-85.30161322631837,29.803614796752928,7.2480001449585,138,144,131
-85.30161322631837,29.803612889404295,8.12899971008301,138,144,131
-85.3016208557129,29.803612889404295,6.87900018692017,125,136,116
-85.30162848510743,29.803610982055663,7.45800018310547,120,137,125
-85.30152930297852,29.803620518798827,10.26000022888184,166,164,139
-85.30152930297852,29.80362242614746,16.6879997253418,150,158,135
-85.30152930297852,29.80362242614746,17.95000076293945,166,164,139
-85.30153693237305,29.803620518798827,17.85799980163574,174,176,155
-85.30154456176759,29.803618611450194,17.52000045776367,181,178,159
-85.30155982055665,29.80361670410156,17.45899963378906,186,181,165
-85.30159033813477,29.80360907470703,7.13800001144409,183,182,170
-85.30155982055665,29.80361670410156,17.59900093078613,194,192,177
-85.3015979675293,29.803607167358397,8.59799957275391,160,166,142
-85.30160559692384,29.803605260009764,7.17799997329712,160,166,142
-85.30160559692384,29.803605260009764,9.30900001525879,160,166,142
-85.30160559692384,29.803605260009764,8.57999992370605,163,164,139
-85.3016208557129,29.80360335266113,8.17800045013428,123,150,119
-85.30162848510743,29.8036014453125,8.31799983978271,123,150,119
-85.30152930297852,29.803614796752928,10.18900012969971,151,159,131
-85.30152930297852,29.803614796752928,11.35999965667725,151,159,131
-85.30152167358399,29.80361670410156,16.73999977111816,150,158,135
-85.30152930297852,29.80361670410156,17.70899963378906,151,159,131
-85.30153693237305,29.803614796752928,17.85799980163574,151,159,131
-85.30154456176759,29.803614796752928,17.95000076293945,168,171,143
-85.30154456176759,29.803612889404295,16.82799911499023,175,174,151
-85.30155219116212,29.803612889404295,17.8700008392334,175,174,151
-85.30158270874024,29.80360335266113,7.65000009536743,185,181,169
-85.30155982055665,29.803610982055663,17.84000015258789,191,186,170
-85.30159033813477,29.80360335266113,8.11999988555908,175,173,155
-85.3015979675293,29.8036014453125,6.51100015640259,175,173,155
-85.3015979675293,29.8036014453125,8.43099975585938,175,173,155
-85.30160559692384,29.803599537963866,8.61999988555908,160,166,142
-85.30161322631837,29.803597630615233,8.61999988555908,180,182,157
-85.30152167358399,29.80360907470703,11.09799957275391,141,154,121
-85.30151404418946,29.803610982055663,17.27000045776367,190,187,173
-85.30152167358399,29.80360907470703,17.51099967956543,135,151,130
-85.30152930297852,29.80360907470703,17.8700008392334,158,162,134
-85.30153693237305,29.803607167358397,18.1299991607666,151,158,129
-85.30154456176759,29.803605260009764,17.95899963378906,161,167,142
-85.30155219116212,29.80360335266113,18.14800071716309,161,167,142
-85.30155982055665,29.80360335266113,17.44099998474121,176,176,157
-85.30156744995118,29.8036014453125,16.73999977111816,195,193,179
-85.3015979675293,29.803593815917967,7.72100019454956,179,176,159
-85.30160559692384,29.803591908569334,7.81799983978271,177,182,155
-85.30161322631837,29.8035900012207,8.47000026702881,180,182,157
-85.30161322631837,29.8035900012207,7.59000015258789,193,191,171
-85.30152167358399,29.803597630615233,10.90900039672852,125,141,114
-85.30152167358399,29.803599537963866,16.88899993896484,161,168,142
-85.30152167358399,29.803599537963866,17.25799942016602,125,141,114
-85.30153693237305,29.803597630615233,17.09000015258789,145,152,132
-85.30154456176759,29.803593815917967,13.85000038146973,162,165,143
-85.30153693237305,29.8035957232666,17.8799991607666,162,165,143
-85.30154456176759,29.8035957232666,16.91900062561035,162,165,143
-85.30155219116212,29.803593815917967,14.33800029754639,169,167,145
-85.30155219116212,29.803593815917967,17.55999946594238,169,167,145
-85.30155982055665,29.803593815917967,17.72999954223633,181,177,157
-85.30156744995118,29.803591908569334,17.1299991607666,203,201,185
-85.30157507934571,29.80358809387207,13.46000003814697,201,196,186
-85.30152167358399,29.803593815917967,9.25100040435791,138,154,126
-85.30152167358399,29.8035957232666,16.77000045776367,125,141,114
-85.30152930297852,29.803591908569334,12.68900012969971,145,152,132
-85.30152930297852,29.803593815917967,17.2180004119873,125,141,114
-85.30153693237305,29.803591908569334,13.81099987030029,162,165,143
-85.30153693237305,29.803593815917967,17.25799942016602,145,152,132
-85.30154456176759,29.8035900012207,14.27999973297119,173,172,146
-85.30154456176759,29.803591908569334,17.8700008392334,162,165,143
-85.30155219116212,29.8035900012207,17.79999923706055,169,167,145
-85.30155982055665,29.80358809387207,17.45899963378906,186,182,154
-85.30156744995118,29.803586186523436,17.05999946594238,203,201,184
-85.30152167358399,29.803584279174803,9.76900005340576,155,157,131
-85.30152930297852,29.803584279174803,10.56999969482422,155,157,131
-85.30152167358399,29.803586186523436,16.99900054931641,155,157,131
-85.30152930297852,29.803584279174803,17.49900054931641,163,163,139
-85.30153693237305,29.803584279174803,17.59900093078613,163,163,139
-85.30154456176759,29.803580464477538,14.47799968719482,182,175,154
-85.30154456176759,29.80358237182617,17.48900032043457,173,172,146
-85.30155219116212,29.803580464477538,14.65799999237061,182,175,154
-85.30155219116212,29.803580464477538,17.40999984741211,182,175,154
-85.30155219116212,29.803580464477538,16.42900085449219,189,185,164
-85.30156744995118,29.803576649780272,13.42000007629395,202,200,185
-85.30151404418946,29.803576649780272,10.56999969482422,182,180,159
-85.30152167358399,29.803576649780272,9.83899974822998,184,182,163
-85.30152930297852,29.80357474243164,10.29899978637695,184,182,163
-85.30153693237305,29.803572835083006,10.29899978637695,179,174,155
-85.30153693237305,29.803570927734373,8.63799953460693,178,177,159
-85.30152167358399,29.803576649780272,16.77899932861328,184,182,163
-85.30152930297852,29.80357474243164,13.56999969482422,179,174,155
-85.30152930297852,29.803576649780272,16.92900085449219,179,174,155
-85.30153693237305,29.80357474243164,14.5600004196167,182,178,155
-85.30153693237305,29.80357474243164,16.7180004119873,182,178,155
-85.30154456176759,29.803572835083006,14.36800003051758,178,177,159
-85.30155219116212,29.803570927734373,14.56900024414063,179,175,157
-85.30152167358399,29.803567113037108,10.22900009155273,174,175,153
-85.30153693237305,29.803565205688475,8.59799957275391,178,177,159
-85.30154456176759,29.803563298339842,8.47999954223633,179,175,157
-85.30153693237305,29.803567113037108,14.15799999237061,177,174,152
-85.30154456176759,29.803565205688475,14.01799964904785,178,177,159
-85.30155219116212,29.803563298339842,14.0600004196167,179,175,157
-85.30152167358399,29.803721608276366,17.47999954223633,161,170,149
-85.30153693237305,29.803723515625,12.35999965667725,106,126,113
-85.30152930297852,29.803721608276366,12.37800025939941,135,140,122
-85.30155982055665,29.803721608276366,18.41900062561035,89,112,111
-85.30155219116212,29.803719700927733,18.62899971008301,82,107,100
-85.30154456176759,29.8037177935791,18.52000045776367,82,107,100
-85.30155219116212,29.803719700927733,17.27000045776367,82,107,100
-85.30153693237305,29.803715886230467,18.34900093078613,106,126,113
-85.30152930297852,29.803713978881834,18.35799980163574,148,156,122
-85.30154456176759,29.8037177935791,13.86800003051758,82,107,100
-85.30152167358399,29.8037120715332,17.90999984741211,167,167,150
-85.30152167358399,29.8037120715332,17.33099937438965,167,167,150
-85.30153693237305,29.803713978881834,12.39000034332275,148,156,122
-85.30160559692384,29.803721608276366,13.53899955749512,127,152,116
-85.30161322631837,29.803723515625,12.28999996185303,127,152,116
-85.3015979675293,29.803719700927733,13.36900043487549,130,154,124
-85.30158270874024,29.803715886230467,16.64800071716309,148,150,135
-85.30159033813477,29.8037177935791,13.26799964904785,133,150,125
-85.30156744995118,29.803713978881834,18.26099967956543,136,145,126
-85.30155982055665,29.8037120715332,18.22100067138672,134,143,129
-85.30157507934571,29.803713978881834,14.52099990844727,141,157,132
-85.30155219116212,29.80371016418457,18.49799919128418,134,143,129
-85.30154456176759,29.803706349487303,18.54999923706055,153,154,126
-85.30153693237305,29.80370444213867,18.63899993896484,156,163,133
-85.30155982055665,29.803708256835936,12.75,134,143,129
-85.30152930297852,29.803702534790038,18.62899971008301,160,170,142
-85.30155219116212,29.803708256835936,10.89099979400635,105,114,101
-85.30153693237305,29.80370444213867,14.02999973297119,156,163,133
-85.30161322631837,29.8037177935791,12.56099987030029,127,152,116
-85.30160559692384,29.803715886230467,12.93900012969971,135,158,117
-85.30159033813477,29.8037120715332,15.48999977111816,148,162,132
-85.3015979675293,29.803713978881834,13.00899982452393,135,158,117
-85.30157507934571,29.803708256835936,17.52000045776367,141,157,132
-85.30158270874024,29.80371016418457,15.06900024414063,145,162,131
-85.30159033813477,29.8037120715332,12.96000003814697,148,162,132
-85.30156744995118,29.803706349487303,17.99799919128418,159,164,148
-85.30157507934571,29.803708256835936,14.6879997253418,141,157,132
-85.30155982055665,29.80370444213867,18.29999923706055,151,158,136
-85.30157507934571,29.803706349487303,14.36800003051758,156,165,133
-85.30155219116212,29.803702534790038,18.09900093078613,153,154,126
-85.30156744995118,29.80370444213867,13.58800029754639,159,164,148
-85.30154456176759,29.803700627441405,18.40099906921387,156,163,133
-85.30155982055665,29.803702534790038,13.35900020599365,151,158,136
-85.30153693237305,29.803698720092772,18.34000015258789,156,163,133
-85.30152930297852,29.803694905395506,18.59000015258789,170,171,152
-85.30153693237305,29.80369681274414,16.77899932861328,170,171,152
-85.30154456176759,29.803698720092772,13.50899982452393,156,163,133
-85.30152930297852,29.80369681274414,14.42000007629395,170,171,152
-85.30152167358399,29.803692998046873,16.70000076293945,155,158,144
-85.30152167358399,29.803692998046873,14.70100021362305,155,155,135
-85.30160559692384,29.80370444213867,15.64799976348877,157,168,137
-85.3015979675293,29.803702534790038,15.5600004196167,170,175,153
-85.30160559692384,29.80370444213867,12.88099956512451,157,168,137
-85.30158270874024,29.803700627441405,17.67799949645996,171,177,158
-85.30159033813477,29.803700627441405,14.88000011444092,171,177,158
-85.3015979675293,29.803702534790038,12.71000003814697,170,175,153
-85.30157507934571,29.803698720092772,17.69099998474121,169,171,143
-85.30157507934571,29.803698720092772,15.98999977111816,156,165,133
-85.30158270874024,29.803700627441405,14.72799968719482,171,177,158
-85.30156744995118,29.80369681274414,17.42799949645996,173,176,159
-85.30158270874024,29.803698720092772,13.20100021362305,156,165,133
-85.30155982055665,29.803692998046873,17.9680004119873,162,167,142
-85.30155219116212,29.80369109069824,17.8799991607666,165,165,134
-85.30154456176759,29.803689183349608,17.84000015258789,173,173,150
-85.30152930297852,29.803687276000975,18.26099967956543,175,170,149
-85.30152167358399,29.803685368652342,17.95000076293945,166,166,147
-85.30152167358399,29.80368346130371,17.13899993896484,166,166,147
-85.30152167358399,29.803685368652342,15.28899955749512,166,166,147
-85.30152930297852,29.803685368652342,14.38000011444092,175,170,149
-85.30152167358399,29.80368346130371,14.9689998626709,166,166,147
-85.30160559692384,29.80369681274414,15.57800006866455,164,172,141
-85.30161322631837,29.803698720092772,12.25,162,176,140
-85.3015979675293,29.803694905395506,15.49899959564209,180,179,158
-85.30160559692384,29.80369681274414,12.63099956512451,164,172,141
-85.30158270874024,29.80369109069824,16.67000007629395,186,187,167
-85.30159033813477,29.803692998046873,13.60000038146973,180,179,158
-85.30157507934571,29.803689183349608,17.31900024414063,183,185,161
-85.30158270874024,29.80369109069824,13.56999969482422,186,187,167
-85.30156744995118,29.803687276000975,17.23999977111816,178,178,162
-85.30155982055665,29.803685368652342,16.73100090026855,174,173,150
-85.30155219116212,29.80368346130371,17.30999946594238,145,155,121
-85.30155982055665,29.803685368652342,13.06099987030029,174,173,150
-85.30154456176759,29.803681553955077,17.17900085449219,156,161,133
-85.30155219116212,29.80368346130371,12.75,174,173,150
-85.30153693237305,29.803679646606444,16.81900024414063,165,168,143
-85.30153693237305,29.80367773925781,14.67899990081787,165,168,143
-85.30152167358399,29.803675831909178,15.17899990081787,142,154,136
-85.30152930297852,29.80367773925781,13.79800033569336,165,168,143
-85.3016208557129,29.803687276000975,10.89099979400635,177,180,161
-85.30160559692384,29.803685368652342,13.18000030517578,156,162,142
-85.30161322631837,29.803685368652342,11.07999992370605,168,174,144
-85.30158270874024,29.803679646606444,16.52899932861328,189,190,169
-85.3015979675293,29.80368346130371,12.57900047302246,162,166,153
-85.30160559692384,29.803685368652342,9.50100040435791,156,162,142
-85.30161322631837,29.803685368652342,8.65900039672852,168,174,144
-85.30157507934571,29.80367773925781,16.59900093078613,192,190,169
-85.30159033813477,29.803679646606444,13.42000007629395,181,183,165
-85.30156744995118,29.803675831909178,16.70899963378906,163,173,145
-85.30155982055665,29.803673924560545,16.49900054931641,146,163,133
-85.30156744995118,29.803675831909178,15.04800033569336,163,173,145
-85.30155219116212,29.803672017211913,17.12100028991699,130,145,115
-85.30154456176759,29.80367010986328,16.62100028991699,139,147,119
-85.30153693237305,29.803668202514647,16.4680004119873,146,152,128
-85.30154456176759,29.80367010986328,14.8100004196167,146,152,128
-85.30155219116212,29.80367010986328,12.56999969482422,139,147,119
-85.30155219116212,29.80367010986328,8.87899971008301,144,163,130
-85.30152930297852,29.80366438781738,15.23999977111816,154,158,140
-85.30153693237305,29.803668202514647,11.16800022125244,146,152,128
-85.30152167358399,29.80366248046875,14.9379997253418,154,158,140
-85.30152167358399,29.80366438781738,13.86800003051758,154,158,140
-85.30152930297852,29.803666295166014,10.89999961853027,156,164,137
-85.30151404418946,29.80366248046875,13.17000007629395,196,194,178
-85.30152167358399,29.80366248046875,10.79899978637695,154,158,140
-85.30151404418946,29.80366248046875,10.85999965667725,196,194,178
-85.3016208557129,29.803681553955077,12.77999973297119,177,180,161
-85.30160559692384,29.80367773925781,14.17000007629395,130,145,117
-85.30161322631837,29.803679646606444,12.75899982452393,125,142,119
-85.3015979675293,29.803675831909178,13.93900012969971,159,165,146
-85.30160559692384,29.80367773925781,12.42099952697754,130,145,117
-85.30160559692384,29.80367773925781,10.73799991607666,130,145,117
-85.30161322631837,29.80367773925781,9.80799961090088,125,142,119
-85.30158270874024,29.803672017211913,16.49900054931641,181,183,165
-85.30157507934571,29.80367010986328,16.55999946594238,190,192,172
-85.30158270874024,29.803672017211913,13.7189998626709,181,183,165
-85.30159033813477,29.803673924560545,8.55000019073486,159,165,146
-85.30155982055665,29.803666295166014,16.73999977111816,144,163,130
-85.30155982055665,29.803668202514647,15.28899955749512,164,174,142
-85.30155219116212,29.80366438781738,16.34000015258789,139,147,119
-85.30155982055665,29.803666295166014,15.00800037384033,144,163,130
-85.30154456176759,29.80366248046875,15.29800033569336,139,147,119
-85.30155219116212,29.80366438781738,12.99100017547607,144,163,130
-85.30156744995118,29.803666295166014,8.80900001525879,164,174,142
-85.30154456176759,29.80366248046875,13.79800033569336,162,169,143
-85.30155982055665,29.80366438781738,9.34799957275391,144,163,130
-85.30155982055665,29.80366438781738,8.48900032043457,144,163,130
-85.30154456176759,29.803660573120116,11.51799964904785,162,169,143
-85.30155219116212,29.80366248046875,9.9399995803833,139,147,119
-85.30152930297852,29.803658665771483,14.4689998626709,170,164,153
-85.30153693237305,29.803660573120116,10.82999992370605,162,169,143
-85.30152167358399,29.80365675842285,14.25899982452393,170,164,153
-85.30152930297852,29.80365675842285,12.01799964904785,170,164,153
-85.30152930297852,29.803658665771483,10.44900035858154,153,164,140
-85.30152167358399,29.803654851074217,11.86900043487549,170,164,153
-85.30162848510743,29.803675831909178,11.10999965667725,115,142,105
-85.30162848510743,29.803673924560545,10.61900043487549,115,142,105
-85.30161322631837,29.803672017211913,12.24100017547607,125,142,119
-85.30161322631837,29.803672017211913,11.26799964904785,125,142,119
-85.3016208557129,29.803673924560545,10.14999961853027,120,146,119
-85.3015979675293,29.803668202514647,13.85900020599365,130,135,113
-85.30161322631837,29.803672017211913,9.6899995803833,125,142,119
-85.30159033813477,29.803666295166014,13.85000038146973,150,158,134
-85.30160559692384,29.803668202514647,11.0310001373291,130,135,113
-85.30159033813477,29.80366438781738,13.31099987030029,175,175,155
-85.30159033813477,29.803666295166014,11.01900005340576,150,158,134
-85.3015979675293,29.803668202514647,9.27799987792969,130,135,113
-85.30157507934571,29.80366248046875,15.74899959564209,176,175,153
-85.30158270874024,29.80366438781738,11.76799964904785,175,175,155
-85.30159033813477,29.803666295166014,9.03999996185303,150,158,134
-85.30156744995118,29.803660573120116,15.13000011444092,176,175,153
-85.30157507934571,29.80366248046875,11.43000030517578,190,192,172
-85.30155982055665,29.803658665771483,13.96000003814697,165,170,143
-85.30156744995118,29.803660573120116,10.97000026702881,176,175,153
-85.30155219116212,29.80365675842285,13.97799968719482,157,165,137
-85.30155982055665,29.803658665771483,12.10099983215332,165,170,143
-85.30157507934571,29.803660573120116,8.30000019073486,176,175,153
-85.30154456176759,29.803654851074217,14.00899982452393,157,165,137
-85.30155219116212,29.803654851074217,9.78999996185303,157,165,137
-85.30153693237305,29.80365103637695,12.46000003814697,173,173,148
-85.30154456176759,29.803652943725584,9.77799987792969,164,170,145
-85.30152167358399,29.80364912902832,13.77099990844727,174,168,156
-85.30152930297852,29.80364912902832,12.31999969482422,174,168,156
-85.30152167358399,29.80364912902832,10.27799987792969,174,168,156
-85.30162848510743,29.80366438781738,11.39000034332275,133,144,113
-85.30163611450196,29.80366438781738,9.77799987792969,133,144,113
-85.3016208557129,29.80366248046875,11.92099952697754,157,166,127
-85.3016208557129,29.80366248046875,10.36900043487549,128,155,115
-85.30162848510743,29.80366438781738,9.30900001525879,133,144,113
-85.30161322631837,29.803660573120116,11.69799995422363,126,141,104
-85.3016208557129,29.803660573120116,10.07999992370605,157,166,127
-85.30160559692384,29.803658665771483,11.75899982452393,114,135,102
-85.30160559692384,29.803658665771483,10.48799991607666,126,141,104
-85.30161322631837,29.803660573120116,8.91800022125244,126,141,104
-85.3015979675293,29.80365675842285,10.07999992370605,114,135,102
-85.30160559692384,29.80365675842285,9.00100040435791,114,135,102
-85.30159033813477,29.803654851074217,11.53999996185303,155,151,147
-85.3015979675293,29.803654851074217,9.62899971008301,113,115,116
-85.3015979675293,29.80365675842285,8.51900005340576,114,135,102
-85.30158270874024,29.803652943725584,11.39999961853027,140,151,142
-85.30156744995118,29.80364912902832,13.4689998626709,178,182,162
-85.30158270874024,29.80365103637695,9.34799957275391,178,182,169
-85.30156744995118,29.803647221679686,11.64900016784668,178,182,162
-85.30155219116212,29.803645314331053,12.31999969482422,176,176,154
-85.30155982055665,29.803647221679686,10.26000022888184,176,176,154
-85.30155219116212,29.803645314331053,9.97000026702881,176,176,154
-85.30154456176759,29.80364340698242,9.93000030517578,176,172,149
-85.30153693237305,29.803641499633788,9.84799957275391,171,170,145
-85.30163611450196,29.80365675842285,11.0310001373291,146,153,122
